ply
format ascii 1.0
element vertex 1219
property float x
property float y
property float z
property uchar red
property uchar green
property uchar blue
end_header
-0.986842 2.631579 -6.736842 167 137 132
-1.414576 3.823178 -9.787335 160 134 129
-0.808219 2.739726 -7.013699 175 143 148
-0.794521 2.739726 -7.013699 176 140 147
-0.782161 2.744425 -7.025729 172 135 144
-0.769099 2.746781 -7.031760 153 120 125
-0.754070 2.742074 -7.019709 125 96 95
-0.739726 2.739726 -7.013699 89 68 64
-0.724167 2.732707 -6.995730 60 47 38
-1.000000 3.846154 -9.846154 48 39 27
-2.112360 8.988764 -23.011236 172 147 155
-2.875000 12.500000 -32.000000 187 158 165
-0.795031 4.968944 -12.720497 160 135 128
-0.768992 4.961240 -12.700775 165 144 136
-0.745342 4.968944 -12.720497 168 151 147
0.411429 9.142858 -23.405714 193 157 152
0.455840 9.116809 -23.339031 193 159 150
0.502857 9.142858 -23.405714 192 161 152
0.750000 12.500000 -32.000000 192 163 156
0.812500 12.500000 -32.000000 189 163 156
0.875000 12.500000 -32.000000 187 163 156
0.937500 12.500000 -32.000000 186 163 155
1.000000 12.500000 -32.000000 184 163 153
1.062500 12.500000 -32.000000 183 161 151
1.125000 12.500000 -32.000000 183 161 151
1.187500 12.500000 -32.000000 184 162 152
1.250000 12.500000 -32.000000 185 162 153
1.312500 12.500000 -32.000000 186 162 154
1.199492 4.066074 -10.409148 190 160 160
1.216730 4.055767 -10.382763 167 143 142
1.223058 4.010025 -10.265664 150 130 128
1.235367 3.985056 -10.201743 138 121 122
1.241379 3.940887 -10.088670 118 107 109
3.066461 4.945904 -12.661514 181 155 143
3.025719 4.841150 -12.393343 181 158 146
3.031579 4.812030 -12.318797 182 159 148
3.037369 4.783258 -12.245142 182 159 147
3.056716 4.776119 -12.226866 180 156 143
3.076006 4.769001 -12.208644 180 154 142
3.095238 4.761905 -12.190476 180 153 141
3.119048 4.761905 -12.190476 178 151 139
3.142857 4.761905 -12.190476 177 150 139
3.166667 4.761905 -12.190476 178 153 142
3.195231 4.769001 -12.208644 181 155 146
3.282675 4.863222 -12.449848 180 154 146
3.312024 4.870624 -12.468798 179 153 143
3.331307 4.863222 -12.449848 178 151 141
3.290611 4.769001 -12.208644 177 146 134
3.285081 4.726736 -12.100443 176 140 126
3.308715 4.726736 -12.100443 185 138 126
3.279070 4.651163 -11.906977 187 129 120
3.255014 4.584527 -11.736390 184 112 106
3.273247 4.577969 -11.719600 178 99 95
2.137291 2.968460 -7.599258 168 85 83
2.150139 2.965709 -7.592215 149 69 66
2.051282 2.735043 -7.001709 86 51 48
2.064957 2.735043 -7.001709 88 48 44
2.059272 2.709568 -6.936494 90 46 41
2.048536 2.677824 -6.855230 90 44 39
2.034682 2.642444 -6.764657 88 42 36
2.037798 2.629417 -6.731307 86 42 36
2.040883 2.616517 -6.698283 85 44 41
2.050612 2.612245 -6.687347 86 48 46
2.053615 2.599513 -6.654752 89 53 51
2.028708 2.551834 -6.532695 96 59 59
2.004699 2.505873 -6.415035 109 70 69
1.998448 2.482545 -6.355314 125 81 78
2.012422 2.484472 -6.360249 143 98 94
2.039093 2.501955 -6.405004 159 113 109
2.037267 2.484472 -6.360249 170 126 123
1.503417 1.822323 -4.665148 167 126 127
1.511668 1.821286 -4.662493 149 113 113
1.520774 1.821286 -4.662493 124 93 89
1.527273 1.818182 -4.654545 107 80 70
1.536364 1.818182 -4.654545 100 78 58
1.545455 1.818182 -4.654545 104 82 62
1.554545 1.818182 -4.654545 117 92 78
1.566306 1.821286 -4.662493 133 102 90
1.577208 1.823362 -4.667806 140 101 95
2.835031 3.258656 -8.342159 139 90 93
2.857143 3.265306 -8.359183 135 82 83
2.870540 3.261978 -8.350662 135 78 78
2.886850 3.261978 -8.350662 135 78 80
2.894309 3.252033 -8.325203 136 81 84
2.907614 3.248731 -8.316751 137 83 86
2.923858 3.248731 -8.316751 137 85 87
2.949084 3.258656 -8.342159 138 87 86
2.965377 3.258656 -8.342159 138 88 85
2.957576 3.232323 -8.274748 138 88 85
2.961771 3.219316 -8.241448 138 86 83
2.977867 3.219316 -8.241448 137 81 79
2.990955 3.216080 -8.233166 132 76 72
2.974155 3.180914 -8.143141 126 68 62
2.946131 3.134182 -8.023506 113 58 53
2.910491 3.079885 -7.884504 99 49 44
2.895238 3.047619 -7.801905 84 40 36
2.896683 3.033175 -7.764929 71 31 31
2.881801 3.001876 -7.684803 58 25 28
2.885981 2.990654 -7.656075 51 21 24
2.882080 2.971216 -7.606314 45 18 21
2.883549 2.957486 -7.571165 42 18 19
2.887661 2.946593 -7.543278 40 18 19
2.899724 2.943882 -7.536338 39 18 19
2.914443 2.943882 -7.536338 40 17 20
4.064118 3.945746 -10.101110 53 18 23
4.224490 4.081633 -10.448979 58 18 24
4.639618 3.818616 -9.775657 125 65 67
4.636580 3.800475 -9.729217 126 66 69
4.650059 3.795967 -9.717675 127 66 70
4.669039 3.795967 -9.717675 127 67 72
4.750000 3.846154 -9.846154 129 67 73
5.020000 4.000000 -10.240000 129 73 76
4.977778 3.950617 -10.113581 129 74 77
4.966871 3.926380 -10.051534 130 75 77
4.986503 3.926380 -10.051534 130 76 78
5.093633 3.995006 -10.227216 131 77 78
5.133583 3.995006 -10.227216 133 77 77
5.083744 3.940887 -10.088670 133 77 76
5.097171 3.936039 -10.076261 134 77 75
5.073171 3.902439 -9.990244 135 77 75
5.037395 3.860072 -9.881785 134 77 74
5.038462 3.846154 -9.846154 134 77 74
4.991696 3.795967 -9.717675 133 77 75
4.992908 3.782506 -9.683215 133 77 77
4.970692 3.751465 -9.603751 132 76 78
4.943089 3.716609 -9.514518 130 75 80
4.950174 3.707995 -9.492468 129 74 81
4.962963 3.703704 -9.481482 128 73 81
4.987254 3.707995 -9.492468 126 72 79
5.064478 3.751465 -9.603751 124 71 76
5.036005 3.716609 -9.514518 122 69 72
5.060465 3.720930 -9.525581 120 67 68
5.175355 3.791469 -9.706161 117 65 65
5.194313 3.791469 -9.706161 115 62 62
5.182568 3.769140 -9.648999 113 60 60
5.134884 3.720930 -9.525581 112 57 59
5.088404 3.673938 -9.405281 111 53 56
5.060296 3.640501 -9.319681 109 49 54
5.055492 3.624009 -9.277463 106 45 51
5.000000 3.571429 -9.142858 102 41 48
4.940660 3.516484 -9.002198 96 37 44
4.936543 3.501094 -8.962801 90 34 41
15.143813 10.702341 -27.397993 84 30 38
14.996699 10.561056 -27.036304 78 27 34
15.049505 10.561056 -27.036304 73 24 31
15.052631 10.526316 -26.947369 69 23 28
15.205298 10.596026 -27.125828 65 21 26
15.308970 10.631229 -27.215946 63 21 25
15.464883 10.702341 -27.397993 62 21 24
15.415282 10.631229 -27.215946 61 21 24
15.366337 10.561056 -27.036304 62 20 24
15.267974 10.457517 -26.771242 63 20 24
14.835443 10.126582 -25.924051 63 20 24
14.700000 10.000000 -25.600000 63 20 24
14.750000 10.000000 -25.600000 61 20 23
14.753894 9.968847 -25.520248 59 21 23
14.803739 9.968847 -25.520248 58 21 22
14.761610 9.907121 -25.362228 57 21 22
14.496969 9.696970 -24.824242 55 21 22
14.285714 9.523809 -24.380953 55 21 22
14.248521 9.467456 -24.236687 55 21 22
14.338279 9.495549 -24.308605 54 21 22
14.690909 9.696970 -24.824242 54 21 22
14.829268 9.756098 -24.975609 54 21 21
14.787879 9.696970 -24.824242 55 21 22
14.746988 9.638555 -24.674698 56 21 21
15.021407 9.785933 -25.051989 56 22 21
15.256966 9.907121 -25.362228 57 21 21
15.645570 10.126582 -25.924051 58 21 21
15.696202 10.126582 -25.924051 58 20 20
15.647799 10.062893 -25.761005 58 20 20
15.503105 9.937888 -25.440994 58 19 20
15.221885 9.726444 -24.899696 56 19 19
15.363914 9.785933 -25.051989 55 19 19
15.603715 9.907121 -25.362228 54 19 19
15.701863 9.937888 -25.440994 53 20 19
15.702786 9.907121 -25.362228 53 19 19
15.703704 9.876543 -25.283951 52 20 19
15.704616 9.846154 -25.206154 52 20 19
-2.147097 2.054193 -5.285161 241 237 232
-2.132647 2.050225 -5.274952 241 238 233
-2.122344 2.050225 -5.274952 242 239 235
-2.103913 2.042335 -5.254651 245 242 238
-2.085623 2.034505 -5.234505 246 240 238
-2.058302 2.017744 -5.191381 226 216 217
-2.033984 2.003776 -5.155444 199 186 171
-2.022641 2.002516 -5.152201 184 166 133
-2.000000 1.990000 -5.120000 171 142 112
-1.675676 1.792793 -4.612613 183 151 147
-1.666667 1.792793 -4.612613 187 154 153
-1.657658 1.792793 -4.612613 185 152 154
-1.648649 1.792793 -4.612613 180 147 146
-2.910586 3.272354 -8.419322 167 136 150
-2.885246 3.262295 -8.393442 171 139 152
-2.868852 3.262295 -8.393442 166 139 150
-2.829268 3.235772 -8.325203 149 126 137
-2.801620 3.222672 -8.291498 130 110 119
-2.125097 2.458687 -6.325869 114 99 105
-2.106236 2.451116 -6.306389 109 98 103
-2.089094 2.445468 -6.291859 107 98 103
-1.002473 2.624897 -6.753504 149 111 100
-0.989283 2.624897 -6.753504 164 132 120
-0.806838 2.721368 -7.001709 179 148 152
-0.793162 2.721368 -7.001709 171 138 142
-0.782161 2.730703 -7.025729 158 124 130
-0.769099 2.733047 -7.031760 133 103 104
-0.754717 2.730703 -7.025729 107 81 75
-0.740995 2.730703 -7.025729 78 57 48
-1.019231 3.826923 -9.846154 54 40 30
-2.875000 12.437500 -32.000000 175 151 158
-0.795031 4.944099 -12.720497 187 159 154
-0.770186 4.944099 -12.720497 184 157 154
-0.745342 4.944099 -12.720497 177 153 154
-0.713846 4.898461 -12.603077 160 139 142
-0.685015 4.868502 -12.525994 145 127 131
-0.658537 4.853659 -12.487804 128 111 115
-0.634146 4.853659 -12.487804 121 104 107
0.277457 9.202312 -23.676300 190 156 144
0.323699 9.202312 -23.676300 197 161 153
0.366762 9.123209 -23.472780 199 161 159
0.411429 9.097143 -23.405714 194 156 152
0.455840 9.071225 -23.339031 193 154 147
0.501424 9.071225 -23.339031 192 154 148
0.750000 12.437500 -32.000000 192 156 153
0.812500 12.437500 -32.000000 189 155 152
0.875000 12.437500 -32.000000 189 158 153
0.937500 12.437500 -32.000000 188 161 155
1.000000 12.437500 -32.000000 188 163 156
1.062500 12.437500 -32.000000 185 162 153
1.125000 12.437500 -32.000000 184 160 151
1.187500 12.437500 -32.000000 183 159 150
1.250000 12.437500 -32.000000 184 159 151
1.312500 12.437500 -32.000000 185 160 153
1.164751 4.066411 -10.462324 204 161 156
1.182166 4.056051 -10.435669 207 173 175
1.199492 4.045743 -10.409148 190 156 162
1.216730 4.035488 -10.382763 156 131 135
1.223058 3.989975 -10.265664 132 114 114
1.235367 3.965131 -10.201743 114 102 103
1.241379 3.921182 -10.088670 88 84 84
1.275218 3.965131 -10.201743 82 82 80
3.024390 4.853659 -12.487804 177 153 139
3.021148 4.809668 -12.374622 179 157 144
3.017964 4.766467 -12.263474 181 159 148
3.032836 4.752239 -12.226866 180 159 147
3.052161 4.745156 -12.208644 178 155 143
3.062315 4.724036 -12.154303 178 154 140
3.086053 4.724036 -12.154303 178 153 139
3.119048 4.738095 -12.190476 176 150 138
3.142857 4.738095 -12.190476 175 150 137
3.171386 4.745156 -12.208644 176 152 139
3.204783 4.759342 -12.245142 176 153 141
3.317972 4.890937 -12.583717 176 153 141
3.332312 4.875957 -12.545177 176 152 139
3.336377 4.846271 -12.468798 176 151 138
3.295522 4.752239 -12.226866 177 147 133
3.280236 4.696165 -12.082596 177 142 127
3.303835 4.696165 -12.082596 186 139 125
3.269565 4.614493 -11.872464 192 133 120
2.051282 2.721368 -7.001709 130 81 78
2.064957 2.721368 -7.001709 132 79 75
2.059272 2.696020 -6.936494 135 78 74
2.048536 2.664435 -6.855230 135 77 73
2.034682 2.629232 -6.764657 134 75 70
2.037798 2.616270 -6.731307 132 75 71
2.037551 2.599184 -6.687347 131 77 74
2.042276 2.588618 -6.660162 132 80 78
2.051948 2.584416 -6.649351 135 84 82
2.043374 2.557430 -6.579920 142 91 90
2.041467 2.539075 -6.532695 154 103 99
2.020392 2.497255 -6.425098 168 113 107
2.026583 2.489445 -6.405004 177 123 115
2.024845 2.472050 -6.360249 182 130 121
1.493455 1.812180 -4.662493 182 135 126
1.502561 1.812180 -4.662493 173 131 126
1.511668 1.812180 -4.662493 151 116 110
1.520774 1.812180 -4.662493 127 96 88
1.527273 1.809091 -4.654545 109 84 69
1.536364 1.809091 -4.654545 104 82 58
1.545455 1.809091 -4.654545 105 82 61
1.556314 1.811149 -4.659841 115 90 74
1.568091 1.814245 -4.667806 130 100 86
2.838974 3.265641 -8.402051 139 100 93
2.852459 3.262295 -8.393442 138 89 91
2.868852 3.262295 -8.393442 135 81 80
2.885246 3.262295 -8.393442 134 76 74
2.901639 3.262295 -8.393442 134 76 76
2.918033 3.262295 -8.393442 136 79 81
2.922449 3.248980 -8.359183 137 82 84
2.923858 3.232487 -8.316751 137 84 86
2.937120 3.229209 -8.308316 138 86 85
2.944388 3.219414 -8.283114 138 88 85
2.945674 3.203219 -8.241448 138 88 85
2.958794 3.200000 -8.233166 139 86 83
2.971888 3.196787 -8.224899 137 82 79
2.987952 3.196787 -8.224899 133 76 72
2.968254 3.158730 -8.126985 127 69 63
2.917556 3.088264 -7.945684 115 59 53
2.910491 3.064485 -7.884504 101 49 44
2.897998 3.035272 -7.809342 86 40 35
2.899431 3.020873 -7.772296 72 32 30
2.906339 3.012299 -7.750237 58 25 26
2.896811 2.986867 -7.684803 51 21 22
2.900935 2.975701 -7.656075 44 19 19
2.905028 2.964618 -7.627561 41 18 17
2.919925 2.964618 -7.627561 38 18 16
2.934823 2.964618 -7.627561 38 17 17
2.955224 2.970149 -7.641791 38 17 17
4.059114 3.921182 -10.088670 45 16 18
4.063804 3.906749 -10.051534 49 15 19
4.675449 3.813174 -9.810779 123 63 64
4.688995 3.808612 -9.799043 124 64 66
4.736462 3.831528 -9.858003 125 64 68
4.755716 3.831528 -9.858003 127 65 69
4.780723 3.836145 -9.869880 128 65 71
4.800000 3.836145 -9.869880 128 67 72
4.993758 3.975031 -10.227216 128 68 72
4.958025 3.930864 -10.113581 128 70 73
4.911084 3.878197 -9.978076 127 72 73
4.924574 3.873479 -9.965937 128 72 74
4.884615 3.826923 -9.846154 129 73 74
4.903846 3.826923 -9.846154 130 74 75
5.019608 3.901961 -10.039216 131 75 76
5.039216 3.901961 -10.039216 132 75 76
5.015796 3.868773 -9.953828 133 75 76
4.998794 3.840772 -9.881785 133 75 76
5.018094 3.840772 -9.881785 134 75 75
5.019231 3.826923 -9.846154 133 76 74
5.020360 3.813174 -9.810779 132 76 75
5.009524 3.790476 -9.752381 132 76 75
4.992908 3.763593 -9.683215 131 76 76
4.970692 3.732708 -9.603751 131 75 78
4.943089 3.698025 -9.514518 130 75 80
4.950174 3.689455 -9.492468 129 74 82
4.968714 3.689455 -9.492468 127 73 82
5.057580 3.741481 -9.626322 126 72 80
5.082353 3.745882 -9.637647 124 71 77
5.083236 3.732708 -9.603751 122 69 73
5.090058 3.723977 -9.581286 120 67 68
5.175355 3.772512 -9.706161 117 65 65
5.194313 3.772512 -9.706161 115 63 62
5.188679 3.754717 -9.660378 113 60 60
5.183099 3.737089 -9.615024 112 57 59
5.153488 3.702326 -9.525581 110 54 57
5.106774 3.655568 -9.405281 109 51 55
5.125144 3.655568 -9.405281 106 47 52
5.246511 3.702326 -9.525581 91 35 42
15.143813 10.648829 -27.397993 85 31 38
14.947369 10.473684 -26.947369 79 27 34
14.950820 10.439344 -26.859016 75 24 31
14.857142 10.337663 -26.597403 69 21 28
14.909091 10.337663 -26.597403 65 20 26
14.961039 10.337663 -26.597403 62 19 25
15.260726 10.508251 -27.036304 60 19 24
15.313531 10.508251 -27.036304 59 19 24
15.366337 10.508251 -27.036304 59 18 24
15.267974 10.405229 -26.771242 60 18 24
14.882540 10.107937 -26.006350 60 18 24
14.746081 9.981192 -25.680250 59 18 23
14.704050 9.919003 -25.520248 58 19 22
14.753894 9.919003 -25.520248 56 19 21
14.757764 9.888199 -25.440994 54 20 21
14.761610 9.857585 -25.362228 52 20 21
14.765432 9.827161 -25.283951 51 20 21
14.545455 9.648485 -24.824242 50 21 21
14.333333 9.476191 -24.380953 50 21 21
14.554217 9.590362 -24.674698 50 20 22
14.825688 9.737003 -25.051989 50 20 22
15.012345 9.827161 -25.283951 50 20 22
14.923548 9.737003 -25.051989 51 20 22
14.972477 9.737003 -25.051989 52 20 21
15.207430 9.857585 -25.362228 52 20 21
15.400000 9.950000 -25.600000 53 20 21
15.645570 10.075950 -25.924051 53 20 20
15.696202 10.075950 -25.924051 54 19 20
15.550000 9.950000 -25.600000 54 18 20
15.503105 9.888199 -25.440994 53 18 20
15.552795 9.888199 -25.440994 53 18 20
15.602485 9.888199 -25.440994 51 18 19
15.652174 9.888199 -25.440994 50 19 19
15.701863 9.888199 -25.440994 49 19 19
15.702786 9.857585 -25.362228 48 19 18
15.703704 9.827161 -25.283951 48 19 18
15.900311 9.919003 -25.520248 48 19 18
-2.147097 2.043871 -5.285161 241 239 233
-2.127168 2.034682 -5.261400 242 239 233
-2.116891 2.034682 -5.261400 243 240 234
-2.098528 2.026871 -5.241203 245 243 237
-2.080306 2.019120 -5.221160 247 242 239
-2.058302 2.007605 -5.191381 230 222 222
-2.032704 1.992453 -5.152201 202 190 175
-2.022641 1.992453 -5.152201 187 170 138
-1.675676 1.783784 -4.612613 183 153 144
-1.666667 1.783784 -4.612613 183 150 145
-1.657658 1.783784 -4.612613 181 148 145
-1.648649 1.783784 -4.612613 178 142 135
-1.639640 1.783784 -4.612613 156 122 116
-4.873096 5.360406 -13.861252 124 98 96
-4.837838 5.351351 -13.837838 125 98 102
-2.945191 3.276112 -8.471561 133 108 118
-2.910586 3.255909 -8.419322 152 126 138
-2.885246 3.245902 -8.393442 155 128 139
-2.868852 3.245902 -8.393442 150 126 136
-2.801620 3.206478 -8.291498 98 83 89
-2.128384 2.450116 -6.335653 78 67 69
-2.111111 2.444444 -6.320988 76 69 70
-2.093918 2.438799 -6.306389 81 76 76
-0.793162 2.707692 -7.001709 160 129 130
-0.780822 2.712329 -7.013699 139 110 108
-0.767123 2.712329 -7.013699 115 89 83
-0.754070 2.714653 -7.019709 96 73 61
-2.875000 12.375000 -32.000000 154 134 138
-2.812500 12.375000 -32.000000 175 151 156
-2.750000 12.375000 -32.000000 185 157 159
-0.771384 4.926905 -12.740280 175 148 149
-0.746501 4.926905 -12.740280 159 136 141
-0.713846 4.873846 -12.603077 137 117 122
-0.685015 4.844037 -12.525994 121 104 107
-0.658537 4.829268 -12.487804 108 94 94
-0.634146 4.829268 -12.487804 105 89 87
0.277457 9.156070 -23.676300 185 156 143
0.320917 9.077364 -23.472780 198 165 156
0.365714 9.051429 -23.405714 200 161 162
0.410256 9.025641 -23.339031 192 151 151
0.455840 9.025641 -23.339031 191 143 140
0.501424 9.025641 -23.339031 189 136 134
0.750000 12.375000 -32.000000 188 135 133
0.812500 12.375000 -32.000000 187 138 132
0.875000 12.375000 -32.000000 190 145 136
0.937500 12.375000 -32.000000 190 154 144
1.000000 12.375000 -32.000000 190 162 152
1.062500 12.375000 -32.000000 189 163 154
1.125000 12.375000 -32.000000 183 157 147
1.187500 12.375000 -32.000000 179 151 142
1.164751 4.045977 -10.462324 208 159 153
1.183674 4.040816 -10.448979 211 176 180
1.202548 4.035669 -10.435669 188 153 162
1.221374 4.030534 -10.422392 146 122 129
1.237009 4.015209 -10.382763 114 98 99
1.247799 3.984906 -10.304402 90 82 82
1.260000 3.960000 -10.240000 57 57 55
1.302799 4.030534 -10.422392 50 55 49
1.350649 4.114286 -10.638961 55 55 52
3.024390 4.829268 -12.487804 174 151 132
2.998501 4.749625 -12.281859 177 155 140
3.008955 4.728358 -12.226866 180 158 146
3.028316 4.721312 -12.208644 180 159 147
3.034074 4.693333 -12.136296 177 154 143
3.057778 4.693333 -12.136296 176 152 139
3.086053 4.700297 -12.154303 176 152 138
3.123696 4.721312 -12.208644 174 150 137
3.147541 4.721312 -12.208644 174 150 136
3.180867 4.735426 -12.245142 175 153 139
3.308642 4.888889 -12.641975 174 153 140
3.333333 4.888889 -12.641975 174 153 139
3.342550 4.866359 -12.583717 174 152 138
3.336377 4.821918 -12.468798 175 150 137
3.300448 4.735426 -12.245142 176 146 131
3.280236 4.672566 -12.082596 178 143 127
3.303835 4.672566 -12.082596 187 140 123
3.269565 4.591304 -11.872464 193 136 119
2.047270 2.581907 -6.676446 174 109 101
2.053615 2.573518 -6.654752 177 114 104
2.054927 2.558966 -6.617125 185 121 111
2.052927 2.540497 -6.569366 195 134 122
2.036364 2.504348 -6.475889 203 143 129
2.026583 2.476935 -6.405004 201 146 130
1.506644 1.830156 -4.732524 195 145 129
1.496009 1.806157 -4.670467 186 143 127
1.505131 1.806157 -4.670467 172 134 120
1.514253 1.806157 -4.670467 152 119 106
1.520774 1.803073 -4.662493 132 99 88
1.527273 1.800000 -4.654545 115 87 70
1.536364 1.800000 -4.654545 110 86 61
1.545455 1.800000 -4.654545 109 84 63
3.226415 3.735849 -9.660378 113 88 71
3.264531 3.758007 -9.717675 126 96 79
2.885246 3.245902 -8.393442 133 73 68
2.901639 3.245902 -8.393442 134 74 72
2.918033 3.245902 -8.393442 137 79 79
2.934426 3.245902 -8.393442 138 81 81
2.938776 3.232653 -8.359183 138 83 84
2.931174 3.206478 -8.291498 138 85 85
2.938446 3.196771 -8.266397 139 87 85
2.939759 3.180723 -8.224899 139 88 86
2.955823 3.180723 -8.224899 140 86 84
2.962963 3.171171 -8.200200 139 83 80
2.976000 3.168000 -8.192000 135 77 74
2.968254 3.142857 -8.126985 130 69 65
2.914729 3.069767 -7.937984 118 59 55
2.910491 3.049086 -7.884504 104 50 45
2.900763 3.022901 -7.816794 88 40 36
2.904943 3.011407 -7.787072 75 32 30
2.909091 3.000000 -7.757576 60 26 24
2.913208 2.988679 -7.728302 52 22 20
2.911820 2.971857 -7.684803 44 19 17
2.915888 2.960748 -7.656075 40 18 15
2.925373 2.955224 -7.641791 37 18 14
2.940299 2.955224 -7.641791 37 17 15
2.957983 2.957983 -7.648926 37 17 15
4.019608 3.882353 -10.039216 35 14 12
4.029340 3.872861 -10.014670 38 14 13
3.966467 3.794012 -9.810779 43 14 13
3.929162 3.740260 -9.671782 47 14 14
4.720677 3.830714 -9.905684 119 61 60
4.717208 3.812274 -9.858003 120 61 61
4.736462 3.812274 -9.858003 121 61 63
4.761446 3.816867 -9.869880 123 62 65
4.780723 3.816867 -9.869880 124 63 67
4.800000 3.816867 -9.869880 124 65 69
4.819277 3.816867 -9.869880 124 66 69
4.832732 3.812274 -9.858003 124 68 69
4.851985 3.812274 -9.858003 124 70 69
4.865385 3.807692 -9.846154 125 70 70
4.872902 3.798561 -9.822542 126 71 70
4.892087 3.798561 -9.822542 127 72 71
4.923077 3.807692 -9.846154 128 72 72
4.996355 3.849332 -9.953828 130 73 73
4.967509 3.812274 -9.858003 131 73 73
4.986763 3.812274 -9.858003 132 73 74
5.000000 3.807692 -9.846154 132 74 74
5.019231 3.807692 -9.846154 132 74 74
5.032413 3.803121 -9.834333 131 75 74
5.015495 3.775924 -9.764005 130 75 74
4.992908 3.744681 -9.683215 130 76 75
4.947491 3.696616 -9.558927 129 75 77
4.937355 3.675174 -9.503480 128 74 79
4.944445 3.666667 -9.481482 127 74 81
4.962963 3.666667 -9.481482 126 73 81
5.057580 3.722679 -9.626322 124 73 79
5.082353 3.727059 -9.637647 123 72 76
5.083236 3.713951 -9.603751 121 70 72
5.084112 3.700935 -9.570093 120 69 68
5.073171 3.679442 -9.514518 118 66 65
5.169811 3.735849 -9.660378 116 64 62
5.188679 3.735849 -9.660378 113 61 60
5.183099 3.718310 -9.615024 111 58 59
5.201878 3.718310 -9.615024 110 55 57
5.226792 3.722679 -9.626322 108 52 55
5.246511 3.683721 -9.525581 92 37 42
5.265116 3.683721 -9.525581 86 33 38
14.898360 10.386886 -26.859016 80 29 34
14.901960 10.352942 -26.771242 75 25 31
14.857142 10.285714 -26.597403 69 22 28
14.909091 10.285714 -26.597403 65 20 26
14.961039 10.285714 -26.597403 61 18 25
15.260726 10.455445 -27.036304 58 18 23
15.313531 10.455445 -27.036304 56 17 23
15.366337 10.455445 -27.036304 56 17 24
15.267974 10.352942 -26.771242 57 17 24
15.073955 10.186495 -26.340836 56 16 24
14.933333 10.057143 -26.006350 55 17 23
14.796238 9.931034 -25.680250 54 17 22
14.753894 9.869159 -25.520248 52 18 21
14.803739 9.869159 -25.520248 50 18 20
14.761610 9.808049 -25.362228 49 19 20
14.811146 9.808049 -25.362228 47 19 20
14.814815 9.777778 -25.283951 46 20 21
14.638298 9.629179 -24.899696 46 19 21
14.913580 9.777778 -25.283951 46 19 22
16.833334 11.000000 -28.444445 46 19 22
16.888889 11.000000 -28.444445 47 19 22
15.061728 9.777778 -25.283951 47 19 22
15.111111 9.777778 -25.283951 48 19 22
15.350000 9.900000 -25.600000 48 19 21
15.448276 9.931034 -25.680250 48 19 21
15.695238 10.057143 -26.006350 49 19 20
15.696202 10.025316 -25.924051 49 18 20
15.501557 9.869159 -25.520248 49 18 20
15.503105 9.838510 -25.440994 49 17 20
15.552795 9.838510 -25.440994 48 17 20
15.651091 9.869159 -25.520248 47 18 20
15.700934 9.869159 -25.520248 46 18 19
15.701863 9.838510 -25.440994 45 18 18
15.702786 9.808049 -25.362228 44 18 17
15.752322 9.808049 -25.362228 43 18 17
15.950000 9.900000 -25.600000 43 18 17
-2.127168 2.024406 -5.261400 242 241 233
-2.116891 2.024406 -5.261400 243 241 234
-2.098528 2.016635 -5.241203 246 244 237
-2.080306 2.008923 -5.221160 248 244 240
-2.060914 2.000000 -5.197969 234 227 226
-2.032704 1.982390 -5.152201 205 195 179
-2.022641 1.982390 -5.152201 189 176 144
-1.666667 1.774775 -4.612613 181 144 139
-1.657658 1.774775 -4.612613 176 138 132
-1.648649 1.774775 -4.612613 172 133 121
-1.639640 1.774775 -4.612613 144 108 95
-1.630631 1.774775 -4.612613 114 88 75
-2.981366 3.262940 -8.480331 98 77 65
-2.964803 3.262940 -8.480331 99 78 73
-2.948240 3.262940 -8.480331 108 89 93
-2.931677 3.262940 -8.480331 133 112 119
-2.119287 2.441518 -6.345469 44 37 35
-0.788445 2.677995 -6.960068 143 115 116
-0.560197 1.936118 -5.031941 118 93 87
-0.546675 1.923124 -4.998169 96 76 64
-2.812500 12.312500 -32.000000 158 136 142
-2.750000 12.312500 -32.000000 175 148 152
-2.687500 12.312500 -32.000000 183 154 155
-0.140351 3.949875 -10.265664 202 167 168
-0.120301 3.949875 -10.265664 186 150 144
-0.100376 3.954831 -10.278544 175 137 127
0.366762 9.031519 -23.472780 197 160 160
0.410256 8.980057 -23.339031 190 149 148
0.458453 9.031519 -23.472780 189 139 137
0.937500 12.312500 -32.000000 190 150 139
1.000000 12.312500 -32.000000 190 161 149
1.062500 12.312500 -32.000000 192 165 156
0.362264 1.982390 -5.152201 164 130 115
0.372327 1.982390 -5.152201 165 132 115
1.148718 4.041026 -10.502564 195 131 115
1.164751 4.025543 -10.462324 209 160 152
1.185185 4.025543 -10.462324 212 176 180
1.205619 4.025543 -10.462324 184 149 158
1.226054 4.025543 -10.462324 140 117 124
1.244898 4.020408 -10.448979 106 94 94
1.263694 4.015286 -10.435669 83 80 78
1.284076 4.015286 -10.435669 54 62 57
1.326425 4.082901 -10.611399 54 68 59
1.350649 4.093506 -10.638961 65 73 69
1.380392 4.120262 -10.708497 74 76 76
1.397653 4.109518 -10.680573 89 85 83
3.024390 4.804878 -12.487804 170 150 129
2.985075 4.704478 -12.226866 175 153 137
3.000000 4.690476 -12.190476 178 157 143
3.010370 4.669630 -12.136296 180 158 146
3.029586 4.662722 -12.118343 176 154 142
3.057778 4.669630 -12.136296 174 152 139
3.099851 4.697466 -12.208644 174 152 138
3.137725 4.718563 -12.263474 173 151 137
3.161677 4.718563 -12.263474 172 152 136
3.253823 4.819572 -12.525994 174 154 139
3.318886 4.879257 -12.681114 173 153 138
3.343653 4.879257 -12.681114 172 152 137
3.358025 4.864198 -12.641975 173 151 136
3.351682 4.819572 -12.525994 174 149 136
3.355623 4.790274 -12.449848 176 144 130
3.324365 4.711510 -12.245142 180 142 126
2.053966 2.577269 -6.698283 215 139 122
2.053615 2.560520 -6.654752 218 144 125
2.054927 2.546042 -6.617125 221 149 130
2.067851 2.546042 -6.617125 225 158 139
2.065758 2.527666 -6.569366 224 161 144
1.507853 1.833624 -4.765562 211 155 136
1.506644 1.820913 -4.732524 197 148 127
1.510651 1.814623 -4.716177 182 141 121
1.516370 1.810454 -4.705342 168 132 112
1.521191 1.805269 -4.691867 152 119 101
1.524244 1.798060 -4.673132 135 101 89
1.529010 1.792947 -4.659841 119 91 76
1.538111 1.792947 -4.659841 114 89 68
3.207547 3.716981 -9.660378 111 85 67
3.230224 3.721370 -9.671782 110 86 68
3.268409 3.743468 -9.729217 122 93 73
2.984456 3.266321 -8.489120 139 82 81
2.952090 3.213048 -8.350662 140 84 83
2.944388 3.187058 -8.283114 140 86 85
2.951613 3.177419 -8.258064 141 87 86
2.955823 3.164659 -8.224899 141 85 85
2.962963 3.155155 -8.200200 141 82 82
2.976000 3.152000 -8.192000 137 77 76
2.968254 3.126984 -8.126985 132 70 69
2.911907 3.051307 -7.930300 120 61 59
2.910491 3.033686 -7.884504 106 52 49
2.909091 3.016268 -7.839234 91 41 39
2.910476 3.001905 -7.801905 77 33 30
2.911848 2.987678 -7.764929 62 27 23
2.918715 2.979206 -7.742911 53 22 19
2.922787 2.967985 -7.713748 46 18 16
2.921348 2.951311 -7.670412 41 17 14
2.925373 2.940299 -7.641791 37 17 14
2.940299 2.940299 -7.641791 36 17 14
2.955224 2.940299 -7.641791 36 17 14
3.819477 3.743468 -9.729217 34 15 12
3.838480 3.743468 -9.729217 33 15 10
3.889820 3.774850 -9.810779 34 17 11
3.908982 3.774850 -9.810779 38 20 15
3.928144 3.774850 -9.810779 44 25 19
3.933174 3.761337 -9.775657 52 30 26
3.910272 3.721370 -9.671782 59 34 32
3.906103 3.699531 -9.615024 64 36 35
3.924883 3.699531 -9.615024 66 35 35
4.720677 3.811366 -9.905684 114 58 56
4.740024 3.811366 -9.905684 115 59 57
4.765133 3.815981 -9.917676 116 59 58
4.813642 3.839221 -9.978076 117 59 61
4.815534 3.825243 -9.941748 118 60 63
4.800000 3.797590 -9.869880 119 62 65
4.819277 3.797590 -9.869880 119 63 66
4.832732 3.793020 -9.858003 119 65 66
4.846154 3.788461 -9.846154 119 66 67
4.865385 3.788461 -9.846154 120 67 67
4.872902 3.779377 -9.822542 121 68 68
4.892087 3.779377 -9.822542 123 69 68
4.899521 3.770335 -9.799043 125 69 69
4.942307 3.788461 -9.846154 127 69 70
4.961538 3.788461 -9.846154 129 69 72
4.980769 3.788461 -9.846154 130 70 73
5.000000 3.788461 -9.846154 130 70 73
5.019231 3.788461 -9.846154 130 71 73
5.038462 3.788461 -9.846154 129 72 73
5.039521 3.774850 -9.810779 129 73 72
4.951934 3.695194 -9.603751 128 73 73
4.930233 3.665116 -9.525581 128 73 74
4.920231 3.643931 -9.470520 127 73 76
4.933025 3.639723 -9.459584 126 73 78
4.911798 3.610538 -9.383735 125 73 78
4.981482 3.648148 -9.481482 123 73 76
5.058548 3.690866 -9.592505 122 73 74
5.071345 3.686550 -9.581286 121 71 70
5.037037 3.648148 -9.481482 120 69 67
5.020689 3.622988 -9.416092 118 67 64
4.998860 3.594071 -9.340935 116 64 62
5.017104 3.594071 -9.340935 114 62 60
5.183099 3.699531 -9.615024 112 59 59
5.314149 3.779377 -9.822542 110 56 57
5.352518 3.779377 -9.822542 105 50 53
5.289256 3.721370 -9.671782 102 46 50
5.264637 3.690866 -9.592505 98 42 46
5.246511 3.665116 -9.525581 93 38 42
5.234682 3.643931 -9.470520 88 34 37
5.235023 3.631336 -9.437788 83 30 33
14.757281 10.200647 -26.511328 77 26 30
15.003279 10.334426 -26.859016 71 23 28
15.368421 10.368421 -26.947369 53 16 23
15.320261 10.300653 -26.771242 52 16 23
18.562500 12.312500 -32.000000 47 18 19
18.625000 12.312500 -32.000000 45 18 19
18.687500 12.312500 -32.000000 44 19 19
18.750000 12.312500 -32.000000 43 19 20
17.705883 11.588235 -30.117647 43 19 21
17.699635 11.545788 -30.007326 43 19 22
17.758242 11.545788 -30.007326 43 19 22
15.300000 9.850000 -25.600000 44 18 22
15.398119 9.880877 -25.680250 45 18 22
16.052116 10.267101 -26.684038 45 18 21
16.051949 10.233767 -26.597403 45 17 20
15.796179 10.038217 -26.089172 45 17 20
15.501557 9.819315 -25.520248 45 17 20
15.407408 9.728395 -25.283951 44 17 20
15.456790 9.728395 -25.283951 44 17 20
15.700000 9.850000 -25.600000 42 17 19
15.799373 9.880877 -25.680250 41 17 18
15.849530 9.880877 -25.680250 40 17 17
15.751553 9.788820 -25.440994 39 17 17
16.152382 10.006350 -26.006350 38 17 16
-2.135396 2.021921 -5.281754 245 243 235
-2.125081 2.021921 -5.281754 246 244 237
-2.098528 2.006398 -5.241203 247 245 239
-2.081633 2.000000 -5.224490 249 246 242
-2.062222 1.991111 -5.201270 237 232 230
-2.037831 1.977301 -5.165195 207 200 186
-2.027743 1.977301 -5.165195 189 179 153
-1.679909 1.779796 -4.649262 181 143 140
-1.665158 1.773756 -4.633484 174 137 132
-1.648649 1.765766 -4.612613 170 135 120
-1.639640 1.765766 -4.612613 141 111 94
-1.630631 1.765766 -4.612613 104 86 69
-1.621622 1.765766 -4.612613 84 72 55
-2.967876 3.249741 -8.489120 83 70 61
-2.951295 3.249741 -8.489120 90 79 80
-2.940810 3.256490 -8.506750 117 103 106
-2.383302 2.975332 -7.772296 80 65 57
-2.368121 2.975332 -7.772296 119 97 93
-2.348485 2.969697 -7.757576 154 126 127
-2.326723 2.961284 -7.735600 178 147 146
-2.292135 2.936330 -7.670412 189 156 155
-2.268657 2.925373 -7.641791 182 149 150
-2.243268 2.911792 -7.606314 174 144 140
-2.226345 2.909091 -7.599258 170 142 134
-0.589631 1.958776 -5.116802 152 121 122
-0.571781 1.932224 -5.047443 123 97 92
-0.558140 1.919217 -5.013464 97 76 63
-0.546675 1.913362 -4.998169 78 62 44
-2.750000 12.250000 -32.000000 161 136 140
-2.687500 12.250000 -32.000000 177 149 152
-0.181360 3.949622 -10.317380 192 154 156
-0.160200 3.924906 -10.252816 197 161 162
-0.140175 3.924906 -10.252816 197 164 161
-0.120301 3.929825 -10.265664 178 143 133
-0.100376 3.934755 -10.278544 165 127 111
-0.081115 3.974652 -10.382763 158 122 96
-0.060991 3.984752 -10.409148 150 113 77
0.350219 1.961226 -5.123202 165 134 118
0.360000 1.960000 -5.120000 167 135 123
0.370231 1.961226 -5.123202 166 136 121
0.380238 1.961226 -5.123202 163 134 118
1.169231 4.020513 -10.502564 207 162 153
1.189744 4.020513 -10.502564 209 177 178
1.210256 4.020513 -10.502564 179 148 156
1.230769 4.020513 -10.502564 137 116 124
1.251282 4.020513 -10.502564 102 89 91
1.271795 4.020513 -10.502564 74 68 68
1.305699 4.062176 -10.611399 45 49 44
1.329870 4.072727 -10.638961 45 56 47
1.352406 4.078023 -10.652796 55 64 59
1.378590 4.093995 -10.694517 70 74 70
1.397653 4.088657 -10.680573 92 91 84
3.302013 5.261745 -13.744967 167 145 127
3.295681 5.209302 -13.607973 170 148 129
2.985075 4.680597 -12.226866 174 151 135
2.977844 4.632201 -12.100443 177 155 142
2.970760 4.584795 -11.976608 180 158 147
3.002933 4.598240 -12.011730 177 154 144
3.250000 4.900000 -12.800000 174 153 140
3.254658 4.869565 -12.720497 173 152 139
3.264297 4.846986 -12.661514 173 153 138
3.304348 4.869565 -12.720497 174 154 140
3.350000 4.900000 -12.800000 173 153 139
3.375000 4.900000 -12.800000 173 152 137
3.400000 4.900000 -12.800000 173 151 136
2.060310 2.555827 -6.676446 226 157 134
2.066612 2.547522 -6.654752 229 160 135
1.503230 1.841456 -4.810335 232 165 141
1.511737 1.840376 -4.807512 228 165 142
1.508731 1.825378 -4.768335 210 155 128
1.517161 1.824317 -4.765562 194 146 116
1.521159 1.817971 -4.748985 179 139 111
1.519862 1.805412 -4.716177 164 129 101
1.525560 1.801264 -4.705342 150 118 94
1.530355 1.796105 -4.691867 138 104 89
1.537757 1.794050 -4.686499 124 94 80
3.184923 3.693757 -9.648999 119 91 73
3.207547 3.698113 -9.660378 114 86 70
3.226415 3.698113 -9.660378 110 84 67
3.264531 3.720047 -9.717675 118 88 68
3.311005 3.751196 -9.799043 126 87 71
8.113960 8.934473 -23.339031 138 76 72
8.253602 9.037464 -23.608068 139 79 75
3.001036 3.249741 -8.489120 140 83 82
2.968400 3.196738 -8.350662 141 85 84
2.960566 3.170880 -8.283114 141 86 85
2.976744 3.170880 -8.283114 142 85 85
2.983871 3.161290 -8.258064 142 83 83
2.968254 3.111111 -8.126985 135 70 72
2.923226 3.047619 -7.961127 123 61 63
2.916104 3.024108 -7.899711 109 52 51
2.923077 3.015385 -7.876923 94 41 40
2.924402 3.000957 -7.839234 80 33 31
2.925714 2.986667 -7.801905 64 26 23
2.927014 2.972512 -7.764929 55 21 18
2.928302 2.958491 -7.728302 47 18 16
2.924086 2.939081 -7.677601 41 17 14
2.925373 2.925373 -7.641791 36 17 14
2.932093 2.917209 -7.620465 35 16 13
2.946977 2.917209 -7.620465 34 16 13
3.856115 3.760192 -9.822542 32 14 11
3.870659 3.755689 -9.810779 37 19 14
3.899160 3.764706 -9.834333 44 25 19
3.908982 3.755689 -9.810779 54 35 30
3.914081 3.742244 -9.775657 65 46 42
3.914489 3.724466 -9.729217 77 56 53
3.910272 3.702479 -9.671782 84 60 61
3.924528 3.698113 -9.660378 90 64 66
3.924883 3.680751 -9.615024 91 63 66
4.707022 3.796610 -9.917676 107 56 52
4.720677 3.792019 -9.905684 108 56 52
4.745763 3.796610 -9.917676 109 56 53
4.835381 3.852580 -10.063882 110 57 54
4.849080 3.847853 -10.051534 111 56 57
4.844933 3.829060 -10.002442 111 57 59
4.834951 3.805825 -9.941748 112 59 60
4.825090 3.782871 -9.881785 112 60 61
4.832732 3.773767 -9.858003 111 62 62
4.851985 3.773767 -9.858003 112 64 62
4.865385 3.769231 -9.846154 114 65 64
4.872902 3.760192 -9.822542 116 65 64
4.862932 3.737783 -9.764005 118 66 65
4.858838 3.720047 -9.717675 120 66 66
4.924551 3.755689 -9.810779 122 66 67
4.961538 3.769231 -9.846154 125 66 68
4.992771 3.778313 -9.869880 126 66 70
5.006017 3.773767 -9.858003 127 67 71
5.031325 3.778313 -9.869880 127 68 71
4.928822 3.659276 -9.558927 126 71 70
4.913094 3.633836 -9.492468 126 71 71
4.914550 3.621247 -9.459584 125 72 72
4.893471 3.592211 -9.383735 124 72 72
4.900571 3.584000 -9.362286 122 73 72
4.918857 3.584000 -9.362286 120 73 72
5.000000 3.629630 -9.481482 120 72 70
5.018518 3.629630 -9.481482 119 70 68
5.002299 3.604598 -9.416092 119 69 66
4.974943 3.571754 -9.330297 118 66 64
4.993166 3.571754 -9.330297 117 64 62
5.017104 3.575827 -9.340935 114 62 60
5.417783 3.819732 -9.978076 107 54 56
5.352518 3.760192 -9.822542 104 51 53
5.289256 3.702479 -9.671782 102 48 50
5.270809 3.676436 -9.603751 98 45 45
5.252619 3.650757 -9.536671 93 41 41
5.240741 3.629630 -9.481482 88 37 36
5.228999 3.608746 -9.426928 84 33 33
5.277778 3.629630 -9.481482 79 29 30
14.809061 10.148868 -26.511328 73 25 29
18.625000 12.250000 -32.000000 42 18 18
18.687500 12.250000 -32.000000 42 18 19
18.750000 12.250000 -32.000000 41 18 19
18.173584 11.833962 -30.913208 41 18 20
17.699635 11.487180 -30.007326 41 18 21
17.010527 11.003509 -28.743860 41 18 22
16.947735 10.926829 -28.543554 41 18 22
17.111111 10.888889 -28.444445 43 17 20
16.480000 10.453333 -27.306667 43 17 20
16.103895 10.181818 -26.597403 43 16 19
15.550000 9.800000 -25.600000 42 16 19
15.219512 9.560976 -24.975609 42 16 19
15.268292 9.560976 -24.975609 41 16 19
16.000000 9.987261 -26.089172 40 16 18
16.912752 10.523490 -27.489933 39 16 18
16.797342 10.418605 -27.215946 38 16 17
16.850498 10.418605 -27.215946 37 16 16
17.365189 10.703072 -27.959044 36 16 16
-2.153446 2.028609 -5.326398 245 244 237
-2.143043 2.028609 -5.326398 246 244 238
-2.105263 2.002567 -5.258023 247 246 240
-2.088292 1.996161 -5.241203 248 246 242
-2.071429 1.989796 -5.224490 237 234 232
-2.054673 1.983471 -5.207883 208 204 193
-1.679909 1.770715 -4.649262 182 143 143
-1.668934 1.768708 -4.643991 173 136 131
-1.648649 1.756757 -4.612613 172 137 121
-1.639640 1.756757 -4.612613 146 117 99
-1.630631 1.756757 -4.612613 108 90 71
-1.621622 1.756757 -4.612613 87 79 58
-2.970954 3.236515 -8.497926 82 75 65
-2.954357 3.236515 -8.497926 86 81 81
-2.940810 3.239875 -8.506750 110 103 104
-2.494297 2.965780 -7.787072 89 73 71
-2.488550 2.977099 -7.816794 90 73 72
-2.463878 2.965780 -7.787072 78 62 60
-2.439394 2.954545 -7.757576 63 51 50
-2.424242 2.954545 -7.757576 44 36 34
-2.404537 2.948960 -7.742911 25 19 16
-2.391675 2.951750 -7.750237 28 21 13
-2.376537 2.951750 -7.750237 63 53 42
-2.361400 2.951750 -7.750237 103 86 80
-2.341832 2.946176 -7.735600 139 116 115
-2.309278 2.924086 -7.677601 167 138 136
-2.287850 2.915888 -7.656075 179 148 148
-2.264432 2.905028 -7.627561 171 140 143
-2.241187 2.894249 -7.599258 160 132 129
-2.216067 2.880886 -7.564174 151 125 117
-2.203327 2.883549 -7.571165 153 128 120
-0.880473 1.846154 -4.847337 34 26 28
-0.869462 1.842883 -4.838748 44 31 32
-0.861538 1.846154 -4.847337 60 43 43
-1.207041 2.615256 -6.866723 85 62 63
-1.188648 2.604341 -6.838063 110 84 85
-1.175292 2.604341 -6.838063 130 105 104
-1.161937 2.604341 -6.838063 139 116 115
-0.600751 1.952441 -5.126408 162 126 128
-0.585608 1.935484 -5.081886 134 102 101
-0.573193 1.927116 -5.059914 104 78 72
-0.561922 1.922366 -5.047443 77 60 45
-0.681818 8.863636 -23.272728 118 95 93
-0.180225 3.904881 -10.252816 191 156 156
-0.160200 3.904881 -10.252816 194 161 160
-0.140175 3.904881 -10.252816 195 165 161
-0.120301 3.909775 -10.265664 176 143 132
-0.100251 3.909775 -10.265664 162 126 110
-0.080301 3.914680 -10.278544 157 124 98
-0.060991 3.964422 -10.409148 149 115 80
0.349781 1.948782 -5.116802 163 133 111
0.359775 1.948782 -5.116802 164 134 117
0.370000 1.950000 -5.120000 163 136 116
0.380000 1.950000 -5.120000 156 128 105
0.390244 1.951220 -5.123202 158 127 103
0.459477 1.991066 -5.227824 196 114 110
0.468193 1.984733 -5.211196 191 91 88
0.478372 1.984733 -5.211196 179 76 73
1.206762 4.057217 -10.652796 204 176 177
1.219638 4.031008 -10.583980 172 145 151
1.240310 4.031008 -10.583980 133 115 119
1.264249 4.041451 -10.611399 99 87 87
1.284974 4.041451 -10.611399 66 60 58
1.307393 4.046692 -10.625162 39 40 32
1.329870 4.051948 -10.638961 35 44 31
1.355932 4.067797 -10.680573 42 52 40
1.378590 4.073107 -10.694517 57 64 52
1.397653 4.067797 -10.680573 83 86 72
1.405685 4.031008 -10.583980 116 110 103
3.275168 5.234900 -13.744967 173 152 140
3.269103 5.182724 -13.607973 170 149 133
3.263158 5.131579 -13.473684 171 150 132
3.267974 5.098039 -13.385621 173 151 136
2.947368 4.561403 -11.976608 177 153 140
2.953488 4.534883 -11.906977 179 156 145
3.275000 4.875000 -12.800000 174 153 141
3.300000 4.875000 -12.800000 175 154 141
1.521127 1.830986 -4.807512 207 152 117
1.522475 1.821366 -4.782253 192 143 106
1.526469 1.815009 -4.765562 176 136 102
1.527778 1.805556 -4.740741 161 127 94
1.528193 1.795167 -4.713464 147 116 89
1.530355 1.786942 -4.691867 138 106 90
1.539519 1.786942 -4.691867 127 99 86
3.188679 3.679245 -9.660378 122 96 81
3.207547 3.679245 -9.660378 117 88 76
3.222615 3.674912 -9.648999 111 83 69
3.249115 3.683589 -9.671782 116 83 65
3.311005 3.732057 -9.799043 123 81 65
8.068377 8.888889 -23.339031 135 72 64
8.113960 8.888889 -23.339031 138 75 70
8.136364 8.863636 -23.272728 140 78 73
8.044693 8.715084 -22.882681 141 81 77
8.044444 8.666667 -22.755556 141 83 81
2.943249 3.052838 -8.015656 126 62 65
2.927396 3.020329 -7.930300 111 51 53
2.940039 3.017408 -7.922631 96 41 42
2.955513 3.017408 -7.922631 82 33 32
2.932331 2.932331 -7.699248 40 16 15
2.933583 2.918616 -7.663237 35 16 13
2.940299 2.910448 -7.641791 33 15 12
2.963517 2.918616 -7.663237 31 14 11
3.850060 3.772672 -9.905684 30 14 11
3.846154 3.750000 -9.846154 34 16 12
3.856115 3.741007 -9.822542 40 21 17
3.875300 3.741007 -9.822542 50 30 26
3.899160 3.745498 -9.834333 63 41 37
3.908982 3.736527 -9.810779 77 53 50
3.914081 3.723150 -9.775657 87 64 62
3.928486 3.718713 -9.764005 96 73 73
3.933492 3.705463 -9.729217 100 77 79
3.952494 3.705463 -9.729217 106 82 84
3.943396 3.679245 -9.660378 109 84 86
3.897912 3.619490 -9.503480 110 82 84
2.451707 2.265795 -5.949165 102 73 75
2.463326 2.265795 -5.949165 91 60 59
2.474946 2.265795 -5.949165 76 45 42
2.482959 2.262509 -5.940536 66 30 28
2.494561 2.262509 -5.940536 59 21 18
4.707022 3.777240 -9.917676 102 52 50
4.726392 3.777240 -9.917676 103 52 49
4.869565 3.875776 -10.176397 103 53 50
4.907731 3.890274 -10.214464 104 53 51
4.909317 3.875776 -10.176397 104 53 53
4.868711 3.828221 -10.051534 104 54 55
4.858537 3.804878 -9.990244 104 56 56
4.854369 3.786408 -9.941748 104 57 56
4.844391 3.763571 -9.881785 104 58 57
4.863691 3.763571 -9.881785 105 60 58
4.865385 3.750000 -9.846154 107 61 59
4.872902 3.741007 -9.822542 109 61 60
4.845606 3.705463 -9.729217 111 62 61
4.847337 3.692308 -9.694674 114 61 62
4.866272 3.692308 -9.694674 116 62 63
5.030230 3.772672 -9.905684 123 62 69
5.049577 3.772672 -9.905684 124 63 70
5.093560 3.791008 -9.953828 123 64 70
4.913094 3.615295 -9.492468 122 68 67
4.891954 3.586207 -9.416092 120 69 66
4.865603 3.553531 -9.330297 119 70 66
4.872727 3.545455 -9.309091 118 71 66
4.890909 3.545455 -9.309091 117 71 67
4.994220 3.606936 -9.470520 117 70 66
5.012717 3.606936 -9.470520 118 68 66
5.002299 3.586207 -9.416092 118 66 65
5.003437 3.573883 -9.383735 118 64 64
4.998860 3.557583 -9.340935 117 62 62
5.546934 3.904881 -10.252816 109 57 59
5.525466 3.875776 -10.176397 106 55 57
5.397823 3.772672 -9.905684 103 53 54
5.384615 3.750000 -9.846154 100 50 50
5.320710 3.692308 -9.694674 97 47 45
5.301998 3.666275 -9.626322 92 44 41
5.277389 3.636364 -9.547786 88 40 37
5.259259 3.611111 -9.481482 85 35 34
5.277778 3.611111 -9.481482 80 31 31
5.296296 3.611111 -9.481482 74 27 30
5.314815 3.611111 -9.481482 69 23 27
5.272311 3.569794 -9.372997 64 21 26
18.562500 12.187500 -32.000000 41 17 18
18.625000 12.187500 -32.000000 41 17 18
18.687500 12.187500 -32.000000 41 17 18
18.750000 12.187500 -32.000000 40 17 19
17.771217 11.512915 -30.228783 40 17 19
17.635036 11.386861 -29.897810 40 17 20
17.010527 10.947369 -28.743860 40 17 20
16.772413 10.758620 -28.248276 40 17 21
16.827587 10.758620 -28.248276 40 17 21
16.590605 10.469799 -27.489933 41 16 18
16.103895 10.129870 -26.597403 41 16 17
15.550000 9.750000 -25.600000 40 16 17
15.081571 9.425982 -24.749245 39 16 17
15.084337 9.397591 -24.674698 39 16 17
16.859060 10.469799 -27.489933 38 15 17
17.084745 10.576271 -27.769491 37 15 17
17.081081 10.540541 -27.675676 36 15 17
17.193220 10.576271 -27.769491 35 15 16
17.306122 10.612245 -27.863945 34 15 16
17.419796 10.648464 -27.959044 34 15 16
-2.153446 2.018205 -5.326398 234 234 228
-2.145833 2.020833 -5.333333 234 234 229
-2.116129 2.002581 -5.285161 234 233 229
-2.105806 2.002581 -5.285161 233 233 229
-2.095484 2.002581 -5.285161 224 223 220
-1.679909 1.761634 -4.649262 182 145 149
-1.669881 1.760635 -4.646625 175 140 138
-1.656109 1.755656 -4.633484 173 140 129
-1.639640 1.747748 -4.612613 153 125 111
-1.630631 1.747748 -4.612613 114 97 81
-1.621622 1.747748 -4.612613 91 83 66
-2.970954 3.219917 -8.497926 84 76 68
-2.957425 3.223261 -8.506750 87 81 81
-2.469697 2.939394 -7.757576 123 101 105
-2.454545 2.939394 -7.757576 102 84 85
-2.432483 2.931067 -7.735600 82 68 70
-2.412818 2.925542 -7.721018 58 48 48
-2.397738 2.925542 -7.721018 31 24 22
-2.382658 2.925542 -7.721018 22 14 8
-2.372049 2.931067 -7.735600 56 45 35
-2.356941 2.931067 -7.735600 96 80 74
-2.335217 2.922787 -7.713748 132 110 109
-2.311445 2.911820 -7.684803 155 127 125
-2.292135 2.906367 -7.670412 169 137 137
-2.270775 2.898226 -7.648926 162 129 132
-2.245353 2.884758 -7.613383 150 119 116
-2.224282 2.876738 -7.592215 137 106 98
-2.209453 2.876738 -7.592215 141 110 102
-0.927121 1.854241 -4.893668 78 63 67
-0.912656 1.844326 -4.867498 65 55 58
-0.902613 1.843230 -4.864608 27 21 23
-0.893112 1.843230 -4.864608 7 5 6
-0.880473 1.836686 -4.847337 18 13 13
-0.869462 1.833432 -4.838748 40 30 29
-0.861538 1.836686 -4.847337 68 53 51
-1.202003 2.590985 -6.838063 105 84 83
-1.193630 2.601844 -6.866723 137 113 113
-1.180218 2.601844 -6.866723 154 131 128
-1.526316 3.403509 -8.982456 162 143 136
-1.508772 3.403509 -8.982456 168 149 143
-0.614610 1.954660 -5.158690 179 141 145
-0.600751 1.942428 -5.126408 153 118 122
-0.587430 1.931549 -5.097698 122 91 91
-0.573193 1.917233 -5.059914 90 65 60
-0.563311 1.917233 -5.059914 63 47 34
-0.501182 1.834515 -4.841608 39 34 27
-0.491435 1.833432 -4.838748 35 29 27
-0.686291 2.610597 -6.889823 29 23 23
-0.483932 5.867675 -15.485823 121 94 89
-0.453686 5.867675 -15.485823 139 110 107
-0.425856 5.901141 -15.574144 157 127 129
-0.395437 5.901141 -15.574144 172 142 143
-0.367816 5.946360 -15.693486 184 154 155
-0.272727 5.878788 -15.515152 188 157 157
-0.160200 3.884856 -10.252816 190 160 158
-0.140000 3.880000 -10.240000 192 164 160
-0.120000 3.880000 -10.240000 173 140 129
-0.100000 3.880000 -10.240000 161 126 109
-0.081321 3.944092 -10.409148 161 127 103
-0.087591 5.664234 -14.948905 155 120 89
0.303222 1.960834 -5.174984 146 121 95
0.311950 1.952201 -5.152201 163 133 109
0.321406 1.948525 -5.142498 159 121 111
0.339788 1.938788 -5.116802 151 122 97
0.349563 1.937578 -5.113608 170 141 119
0.359775 1.938788 -5.116802 171 142 128
0.370000 1.940000 -5.120000 166 140 123
0.380000 1.940000 -5.120000 155 125 103
0.390000 1.940000 -5.120000 152 116 90
0.462893 1.952201 -5.152201 190 85 85
0.469413 1.937578 -5.113608 176 64 61
1.229167 4.041667 -10.666667 167 137 140
1.248374 4.036411 -10.652796 133 107 108
1.265888 4.025940 -10.625162 105 80 78
1.286641 4.025940 -10.625162 79 57 53
1.307393 4.025940 -10.625162 58 44 36
1.328145 4.025940 -10.625162 57 51 39
1.352406 4.036411 -10.652796 63 60 49
1.378590 4.052219 -10.694517 72 68 58
3.249570 5.342513 -14.099828 154 132 102
3.264214 5.190636 -13.698997 176 156 145
3.236842 5.105263 -13.473684 174 153 139
3.247136 5.080196 -13.407529 173 150 135
3.267974 5.071896 -13.385621 174 149 135
3.299509 5.080196 -13.407529 175 151 137
3.824817 5.664234 -14.948905 175 152 141
3.819168 5.613020 -14.813744 177 153 141
1.517079 1.828033 -4.824500 224 161 124
1.522020 1.822666 -4.810335 205 149 110
1.524255 1.814144 -4.787843 190 140 99
1.524695 1.803603 -4.760023 174 133 96
1.529548 1.798378 -4.746234 158 122 86
1.529954 1.788018 -4.718894 145 112 83
1.537399 1.785961 -4.713464 140 108 90
3.173554 3.664699 -9.671782 131 102 92
3.192444 3.664699 -9.671782 125 98 88
3.203769 3.656066 -9.648999 119 89 80
3.218823 3.651765 -9.637647 113 82 70
3.233843 3.647474 -9.626322 116 78 62
3.303103 3.704057 -9.775657 121 74 59
8.304985 9.102639 -24.023460 136 72 64
8.090909 8.818182 -23.272728 138 74 69
8.000000 8.670391 -22.882681 141 77 73
8.000000 8.622222 -22.755556 142 80 76
8.044444 8.622222 -22.755556 143 81 80
2.978218 3.073267 -8.110891 127 64 68
2.953125 3.031250 -8.000000 112 52 56
2.960078 3.022395 -7.976631 97 41 44
2.975657 3.022395 -7.976631 83 33 34
2.947368 2.917293 -7.699248 31 14 12
2.962406 2.917293 -7.699248 29 13 10
3.821472 3.744270 -9.881785 29 13 10
3.840772 3.744270 -9.881785 35 18 13
3.846154 3.730769 -9.846154 45 25 21
3.865385 3.730769 -9.846154 57 35 32
3.884615 3.730769 -9.846154 72 48 45
3.903846 3.730769 -9.846154 85 60 57
3.913669 3.721823 -9.822542 94 68 67
3.923445 3.712919 -9.799043 99 74 73
3.933174 3.704057 -9.775657 103 79 79
3.952267 3.704057 -9.775657 105 81 82
3.995198 3.726290 -9.834333 112 86 86
2.451707 2.254176 -5.949165 127 96 95
2.463326 2.254176 -5.949165 118 87 84
2.474946 2.254176 -5.949165 99 70 67
2.482959 2.250906 -5.940536 79 48 48
